1.894818612114515	2.762800687185042	3.983576662258652	-0.2561784975827867	-0.8767835728086936	-0.4069682344226005	
1.899942182066171	2.780336358641216	3.991716026947104	0.2561784975827867	0.8767835728086936	0.4069682344226005	
3.385287082321198	0.4117902328225032	9.584537551900819	-0.492413425664959	-0.05832705108270805	-0.8684048441463781	
3.395135350834497	0.4129567738441573	9.601905648783747	0.492413425664959	0.05832705108270805	0.8684048441463781	
-2.276435701267697	-1.599738301681289	3.795207390873999	-0.6915749465230792	-0.7138429647340626	-0.1102375391655862	
-2.262604202337236	-1.585461442386608	3.797412141657311	0.6915749465230792	0.7138429647340626	0.1102375391655862	
-1.012639722756997	2.055701285941516	1.17305982444239	-0.4106113958033487	-0.2681746251541546	-0.8714818713317303	
-1.00442749484093	2.061064778444599	1.190489461869024	0.4106113958033487	0.2681746251541546	0.8714818713317303	
-3.138422834738756	1.265119839090757	8.439354282093547	-0.904921887974395	-0.4238209174935859	-0.0386290895537481	
-3.120324396979268	1.273596257440629	8.440126863884622	0.904921887974395	0.4238209174935859	0.0386290895537481	
-2.786648539871722	4.419798771796218	2.390451630340079	-0.4880547200515607	-0.5864140114084906	-0.6464682493821297	
-2.776887445470691	4.431527052024388	2.403380995327722	0.4880547200515607	0.5864140114084906	0.6464682493821297	
-0.2738162648966669	-1.396573712693765	9.493325887604623	-0.527108721545428	-0.08059420488764688	-0.8459674756214168	
-0.2632740904657583	-1.394961828596012	9.510245237117051	0.527108721545428	0.08059420488764688	0.8459674756214168	
3.270758826165867	-0.3661383443962285	3.556230966112443	-0.4904618868238344	-0.3637675982599102	-0.7919092574464709	
3.280568063902344	-0.3588629924310303	3.572069151261372	0.4904618868238344	0.3637675982599102	0.7919092574464709	
-0.655142596398659	-0.6410720155333582	5.567274588052975	-0.6662481904550923	-0.3596865090742369	-0.6532526034431885	
-0.6418176325895572	-0.6338782853518735	5.580339640121839	0.6662481904550923	0.3596865090742369	0.6532526034431885	
1.691505115957781	-3.265888324366311	5.002404163700664	-0.4341124649573148	-0.143106982540059	-0.8894193382859197	
1.700187365256927	-3.26302618471551	5.020192550466382	0.4341124649573148	0.143106982540059	0.8894193382859197	
3.825892183490687	0.5978124172167609	9.871025411707798	-0.7334832921543178	-0.07856203154649628	-0.6751520327524393	
3.840561849333773	0.5993836578476909	9.884528452362847	0.7334832921543178	0.07856203154649628	0.6751520327524393	
-1.696348113995073	4.707363522083725	3.780366819389023	-0.7330458411414652	-0.3192173663961777	-0.6006197364192174	
-1.681687197172244	4.713747869411648	3.792379214117407	0.7330458411414652	0.3192173663961777	0.6006197364192174	
-4.766488245809436	-3.241387526949654	6.704944210193156	-0.3427328171655896	-0.9128502703306483	-0.2218977241771556	
-4.759633589466124	-3.223130521543041	6.7093821646767	0.3427328171655896	0.9128502703306483	0.2218977241771556	
3.525556191919072	-2.510686948149636	5.951150078069699	-0.5214257736102452	-0.336461582898859	-0.784161186139783	
3.535984707391277	-2.503957716491659	5.966833301792495	0.5214257736102452	0.336461582898859	0.784161186139783	
3.555663016998985	0.3940561319345415	6.482871659353652	-0.7476528667358594	-0.6568555508795187	-0.09775467324079945	
3.570616074333703	0.4071932429521318	6.484826752818468	0.7476528667358594	0.6568555508795187	0.09775467324079945	
-2.374386913061076	3.087024863603839	0.9373035466793256	-0.8773186868998009	-0.3676381012287546	-0.3084706600980475	
-2.35684053932308	3.094377625628414	0.9434729598812865	0.8773186868998009	0.3676381012287546	0.3084706600980475	
4.399755900380416	3.889153277242449	2.265993602448964	-0.5990363853342756	-0.7949893576829723	-0.09564167614832192	
4.411736628087102	3.905053064396108	2.267906435971931	0.5990363853342756	0.7949893576829723	0.09564167614832192	
2.924473375473059	0.286688271955946	1.885499653007908	-0.691284654461899	-0.634575461320139	-0.3456002175864848	
2.938299068562297	0.2993797811823488	1.892411657359638	0.691284654461899	0.634575461320139	0.3456002175864848	
-0.9951839836974907	-2.11050149311339	1.993387720964519	-0.787408074461778	-0.2493640202277969	-0.5637429464642782	
-0.9794358222082552	-2.105514212708834	2.004662579893805	0.787408074461778	0.2493640202277969	0.5637429464642782	
4.910739341697694	-4.788689903528942	6.449945710519738	-0.7656869491915783	-0.4564288667707986	-0.4532065593258971	
4.926053080681525	-4.779561326193526	6.459009841706256	0.7656869491915783	0.4564288667707986	0.4532065593258971	
-4.358899404647284	-0.3037045826475127	8.926095745272773	-0.832569343081064	-0.5348628180801989	-0.1440487931114793	
-4.342248017785662	-0.2930073262859087	8.928976721135003	0.832569343081064	0.5348628180801989	0.1440487931114793	
3.539852555631907	-4.83191969270596	0.3500409250730863	-0.8793846943307881	-0.3530111299885411	-0.3194772315532983	
3.557440249518523	-4.82485947010619	0.3564304697041522	0.8793846943307881	0.3530111299885411	0.3194772315532983	
0.8310352469303062	-0.1548323690540998	6.731220976077291	-0.3082316066767219	-0.5134263600005056	-0.8008661870138593	
0.8371998790638406	-0.1445638418540897	6.747238299817568	0.3082316066767219	0.5134263600005056	0.8008661870138593	
4.243329376391812	2.548777662725811	4.262261825625805	-0.6622290272306383	-0.7444358832571543	-0.08525216250807513	
4.256573956936425	2.563666380390953	4.263966868875966	0.6622290272306383	0.7444358832571543	0.08525216250807513	
-3.363670930758595	2.164320047967255	7.064116948374259	-0.8870221945784154	-0.2608704016994114	-0.3809701561047524	
-3.345930486867026	2.169537456001243	7.071736351496353	0.8870221945784154	0.2608704016994114	0.3809701561047524	
2.280113496559365	-3.504280365658264	9.878443352186363	-0.2249651935455022	-0.5750020439203645	-0.7866150972238188	
2.284612800430275	-3.492780324779857	9.894175654130839	0.2249651935455022	0.5750020439203645	0.7866150972238188	
-3.230191854588359	2.372817165770668	8.493356062703468	-0.7609326958227436	-0.6432510927198729	-0.08490856342337573	
-3.214973200671904	2.385682187625065	8.495054233971935	0.7609326958227436	0.6432510927198729	0.08490856342337573	
-0.5654463404521137	-3.493978069008072	0.8207035744303004	-0.6820381623218186	-0.7290413993998415	-0.05764185196363274	
-0.5518055772056774	-3.479397241020076	0.821856411469573	0.6820381623218186	0.7290413993998415	0.05764185196363274	
3.299481470579742	1.444509848501574	8.70120893680987	-0.6796487188055851	-0.6605709300972273	-0.3189414763501459	
3.313074444955853	1.457721267103518	8.707587766336873	0.6796487188055851	0.6605709300972273	0.3189414763501459	
1.904158470597352	-1.613313370312405	4.151333857114126	-0.5697812753310275	-0.2280583382999145	-0.7895180128496309	
1.915554096103973	-1.608752203546406	4.167124217371118	0.5697812753310275	0.2280583382999145	0.7895180128496309	
0.9056352350274666	2.906302876647826	0.05530570088517983	-0.58117141695028	-0.6630019628702504	-0.4718772948025781	
0.9172586633664722	2.919562915905231	0.06474324678123139	0.58117141695028	0.6630019628702504	0.4718772948025781	
-3.454941753940022	-1.253880155032633	8.919736977548768	-0.4144277695628241	-0.5459807430018006	-0.7281171966698662	
-3.446653198548765	-1.242960540172597	8.934299321482165	0.4144277695628241	0.5459807430018006	0.7281171966698662	
-0.1730326644818903	-1.550545907724437	9.933625683642047	-0.5995990185790986	-0.1715830248015442	-0.7816906565380799	
-0.1610406841103083	-1.547114247228406	9.949259496772809	0.5995990185790986	0.1715830248015442	0.7816906565380799	
0.6076032067717141	0.9388929061240514	3.3560120428509	-0.7200705679469139	-0.685832897540809	-0.1055064634389149	
0.6220046181306523	0.9526095640748676	3.358122172119678	0.7200705679469139	0.685832897540809	0.1055064634389149	
-3.359574378737193	1.111210319847031	5.22679038556851	-0.6584858476447457	-0.6496269115107073	-0.3799753469537734	
-3.346404661784299	1.124202858077245	5.234389892507585	0.6584858476447457	0.6496269115107073	0.3799753469537734	
0.6012754155756128	-2.750211550724599	5.588878651159341	-0.4336081865145254	-0.7908728743769202	-0.4318611318032369	
0.6099475793059034	-2.734394093237061	5.597515873795405	0.4336081865145254	0.7908728743769202	0.4318611318032369	
-0.7433269298921019	4.111081688245762	7.741721814153637	-0.3071828532130568	-0.7157584370330826	-0.6271591141870175	
-0.7371832728278408	4.125396856986423	7.754264996437377	0.3071828532130568	0.7157584370330826	0.6271591141870175	
3.917789310991196	-0.8114216170582922	7.517712908771459	-0.5720374969078628	-0.7253583178907717	-0.3829208962671759	
3.929230060929354	-0.7969144507004767	7.525371326696803	0.5720374969078628	0.7253583178907717	0.3829208962671759	
2.447584455558199	1.998936951197579	1.769164973473284	-0.6758760023105361	-0.7295147979936409	-0.1048798789521876	
2.46110197560441	2.013527247157451	1.771262571052328	0.6758760023105361	0.7295147979936409	0.1048798789521876	
1.013330616910426	0.2369515942211109	4.342670866612218	-0.6527243543001244	-0.1726515519823571	-0.7376600564633882	
1.026385103996429	0.240404625260758	4.357424067741486	0.6527243543001244	0.1726515519823571	0.7376600564633882	
0.3827123151201706	-2.925424500251047	9.803079474249449	-0.5934272988481808	-0.5776904198704439	-0.5604621483844044	
0.3945808610971342	-2.913870691853639	9.814288717217137	0.5934272988481808	0.5776904198704439	0.5604621483844044	
2.75547658783747	-1.299930376690309	9.446030832978234	-0.2277395384391804	-0.5763137456532079	-0.784854871426991	
2.760031378606254	-1.288404101777245	9.461727930406774	0.2277395384391804	0.5763137456532079	0.784854871426991	
0.1939146236774958	4.196691725365548	5.801617596228023	-0.07892827325804039	-0.634758127663224	-0.7686692702625639	
0.1954931891426566	4.209386887918813	5.816990981633274	0.07892827325804039	0.634758127663224	0.7686692702625639	
0.9908867685189093	-4.750513480181294	4.517654950875144	-0.7320863684827306	-0.659144077727021	-0.1719844001040868	
1.005528495888564	-4.737330598626754	4.521094638877226	0.7320863684827306	0.659144077727021	0.1719844001040868	
-3.772992007657161	-4.021972322618119	2.8275376471848	-0.6177860829292293	-0.6483291157704034	-0.4449828236947199	
-3.760636285998576	-4.009005740302711	2.836437303658695	0.6177860829292293	0.6483291157704034	0.4449828236947199	
0.5400175588029854	-2.05107105933997	0.8421931951572825	-0.4667204083142938	-0.5491407162219631	-0.6932651255112781	
0.5493519669692712	-2.04008824501553	0.8560584976675081	0.4667204083142938	0.5491407162219631	0.6932651255112781	
-2.511944956008999	1.016259399176013	3.774775176848052	-0.1573807198076771	-0.4078653130939955	-0.8993760033531885	
-2.508797341612845	1.024416705437893	3.792762696915116	0.1573807198076771	0.4078653130939955	0.8993760033531885	
3.277079685954721	-2.371522192811949	8.680500209267093	-0.3879645822684276	-0.6186147250841245	-0.6832271253502582	
3.284838977600089	-2.359149898310267	8.694164751774098	0.3879645822684276	0.6186147250841245	0.6832271253502582	
-2.567975448004681	-0.8138105167468335	2.071975390396626	-0.1958508925578716	-0.6243810875160054	-0.7561684239880793	
-2.564058430153524	-0.8013228949965133	2.087098758876388	0.1958508925578716	0.6243810875160054	0.7561684239880793	
2.954609439137101	-1.985081026001411	2.553154025462901	-0.7933366968618796	-0.5593549926066214	-0.240289154266956	
2.970476173074338	-1.973893926149278	2.55795980854824	0.7933366968618796	0.5593549926066214	0.240289154266956	
4.314433258552133	3.824868538192698	8.504047480652893	-0.7518876417660298	-0.4314092672302081	-0.4985489126529243	
4.329471011387453	3.833496723537302	8.514018458905952	0.7518876417660298	0.4314092672302081	0.4985489126529243	
4.492664171265062	-2.09811649923397	0.8961730401300816	-0.9678454333027526	-0.1080979970945355	-0.2271344101169107	
4.512021079931118	-2.095954539292079	0.9007157283324198	0.9678454333027526	0.1080979970945355	0.2271344101169107	
-1.824431144358475	1.665360425209897	2.129658119131546	-0.8281124658011796	-0.1392885060147249	-0.5429810826141882	
-1.807868895042451	1.668146195330192	2.14051774078383	0.8281124658011796	0.1392885060147249	0.5429810826141882	
-1.679001340382955	1.996807278713986	0.007857802335410335	-0.6365932140777587	-0.120967523577441	-0.7616534238285089	
-1.6662694761014	1.999226629185535	0.02309087081198051	0.6365932140777587	0.120967523577441	0.7616534238285089	
0.3969041964209641	-2.098213410248976	0.6460070596661505	-0.2396327916520922	-0.7449141205027825	-0.6226388023891467	
0.4016968522540059	-2.08331512783892	0.6584598357139334	0.2396327916520922	0.7449141205027825	0.6226388023891467	
4.361306109558512	2.041930075662184	4.062400156599447	-0.2030418021340537	-0.9654298590907238	-0.1634601289679561	
4.365366945601193	2.061238672843998	4.065669359178806	0.2030418021340537	0.9654298590907238	0.1634601289679561	
-3.33761110749112	3.388233290044923	3.535347645828938	-0.3798539812715832	-0.7594731624847585	-0.5281206948960884	
-3.330014027865688	3.403422753294618	3.54591005972686	0.3798539812715832	0.7594731624847585	0.5281206948960884	
4.327599120379688	-1.232834125006785	5.471455747982993	-0.8723073119711455	-0.1120961165184808	-0.4759353045773655	
4.345045266619111	-1.230592202676416	5.48097445407454	0.8723073119711455	0.1120961165184808	0.4759353045773655	
-4.625603534198809	-1.224831039525861	8.137571947311553	-0.6647546426270926	-0.633321938811413	-0.3962380432591994	
-4.612308441346267	-1.212164600749633	8.145496708176736	0.6647546426270926	0.633321938811413	0.3962380432591994	
1.891943512581229	-1.285956889271007	7.035451073407955	-0.5716952485468276	-0.7446177114583872	-0.3445417341505304	
1.903377417552166	-1.271064535041839	7.042341908090965	0.5716952485468276	0.7446177114583872	0.3445417341505304	
-1.572897736498049	-1.453173290846863	0.4483329006297043	-0.5860925166790358	-0.2985896823243781	-0.7532195984586839	
-1.561175886164468	-1.447201497200375	0.463397292598878	0.5860925166790358	0.2985896823243781	0.7532195984586839	
-1.440170301113571	-4.491968478678123	9.305373555774285	-0.7086491093937498	-0.6320314770969389	-0.3136122633350087	
-1.425997318925696	-4.479327849136184	9.311645801040985	0.7086491093937498	0.6320314770969389	0.3136122633350087	
0.3494737267084769	-3.195856738686458	4.614757786368655	-0.6121139466144916	-0.428831442159897	-0.6643945443598211	
0.3617160056407667	-3.18728010984326	4.628045677255851	0.6121139466144916	0.428831442159897	0.6643945443598211	
4.466004144105816	0.08101103492943684	7.449946400012044	-0.188619740948554	-0.9589222499075754	-0.211874283377417	
4.469776538924787	0.1001894799275884	7.454183885679592	0.188619740948554	0.9589222499075754	0.211874283377417	
3.963733388247478	2.722804221429848	3.53630115462416	-0.2747403029348104	-0.5277818023899904	-0.8037189403076561	
3.969228194306174	2.733359857477648	3.552375533430313	0.2747403029348104	0.5277818023899904	0.8037189403076561	
3.612929117498758	-4.316505478109463	0.974590015065151	-0.2377432912386158	-0.5578299066317	-0.7951754037558629	
3.61768398332353	-4.305348879976829	0.9904935231402683	0.2377432912386158	0.5578299066317	0.7951754037558629	
4.351824153169045	-1.242393693485951	9.468108558458294	-0.2922149368508386	-0.9191513755505678	-0.264142347049388	
4.357668451906062	-1.22401066597494	9.473391405399282	0.2922149368508386	0.9191513755505678	0.264142347049388	
-4.947257005558122	2.123716005504336	2.56164251522199	-0.5200200701787602	-0.6689381253168097	-0.531131726701493	
-4.936856604154547	2.137094768010672	2.57226514975602	0.5200200701787602	0.6689381253168097	0.531131726701493	
-0.8737276556248652	0.4652781617978408	2.534496766673239	-0.7450030609690106	-0.08460449907364508	-0.6616740269069826	
-0.858827594405485	0.4669702517793137	2.547730247211378	0.7450030609690106	0.08460449907364508	0.6616740269069826	
-0.06965966058203876	-3.638498867331347	9.373462634626698	-0.4345382861360895	-0.7117460037756272	-0.5519004475368132	
-0.06096889485931697	-3.624263947255834	9.384500643577434	0.4345382861360895	0.7117460037756272	0.5519004475368132	
4.789106995970698	-2.452801423888027	3.221080673242538	-0.4126081232801661	-0.7387985823070476	-0.5328519413348475	
4.797359158436302	-2.438025452241886	3.231737712069235	0.4126081232801661	0.7387985823070476	0.5328519413348475	
3.202562176897938	-0.9566904432546064	4.798012582715009	-0.6014290810903123	-0.761036355904895	-0.2431187475491356	
3.214590758519744	-0.9414697161365085	4.802874957665991	0.6014290810903123	0.761036355904895	0.2431187475491356	
2.076882372792268	-1.387765229305801	3.69605631593743	-0.6239078665255181	-0.7741161861307519	-0.1071592481214528	
2.089360530122778	-1.372282905583186	3.698199500899859	0.6239078665255181	0.7741161861307519	0.1071592481214528	
-0.3191328251497305	-3.568567027705813	3.312128727679747	-0.2555359806151488	-0.1092245191237827	-0.9606098932622091	
-0.3140221055374275	-3.566382537323338	3.331340925544991	0.2555359806151488	0.1092245191237827	0.9606098932622091	
3.130559786387157	1.093999333921324	0.3929393002321868	-0.2539113623573709	-0.6452633013075454	-0.7205305628850949	
3.135638013634304	1.106904599947475	0.4073499114898887	0.2539113623573709	0.6452633013075454	0.7205305628850949	
2.009406992379242	1.673507878334874	2.485541364299937	-0.7005077213684764	-0.4538746768470992	-0.5507147265327906	
2.023417146806612	1.682585371871816	2.496555658830593	0.7005077213684764	0.4538746768470992	0.5507147265327906	
-3.444612053511023	3.028277850530368	2.435176446708704	-0.4068928917569058	-0.4511131178148219	-0.7943142511456619	
-3.436474195675884	3.037300112886664	2.451062731731618	0.4068928917569058	0.4511131178148219	0.7943142511456619	
-0.005009772160269321	0.5207031511050797	5.903244311479213	-0.6579513061203776	-0.3602647937602078	-0.6612936996156883	
0.008149253962138231	0.5279084469802838	5.916470185471526	0.6579513061203776	0.3602647937602078	0.6612936996156883	
-1.468353243493854	1.957323495299778	9.050714334900324	-0.5061991157227971	-0.8615212770442591	-0.0392879681516773	
-1.458229261179398	1.974553920840663	9.051500094263357	0.5061991157227971	0.8615212770442591	0.0392879681516773	
3.811322717282261	1.743506756918906	1.554879208723587	-0.273198936347415	-0.3956596814307172	-0.8768213943949956	
3.816786696009209	1.75141995054752	1.572415636611487	0.273198936347415	0.3956596814307172	0.8768213943949956	
-2.813994552048512	-2.341218106701948	5.556134756167623	-0.009480526921773388	-0.9084271702951504	-0.4179356360479818	
-2.813804941510076	-2.323049563296045	5.564493468888583	0.009480526921773388	0.9084271702951504	0.4179356360479818	
-3.573619779564521	1.667563291482896	3.450267436870327	-0.3078801924623903	-0.9514060753724166	-0.006022195096234073	
-3.567462175715273	1.686591412990345	3.450387880772252	0.3078801924623903	0.9514060753724166	0.006022195096234073	
4.695420635964885	0.4549255191074231	0.4577792599269304	-0.4925855753994672	-0.6829822940548209	-0.5393464905939316	
4.705272347472874	0.4685851649885195	0.468566189738809	0.4925855753994672	0.6829822940548209	0.5393464905939316	
-2.647363296441708	2.230737996569543	3.142171382730423	-0.673803574228111	-0.7124366659202885	-0.1960171941687912	
-2.633887224957146	2.244986729887949	3.146091726613799	0.673803574228111	0.7124366659202885	0.1960171941687912	
0.7552346633111573	2.844759750206868	0.8958775112108619	-0.4832804574819956	-0.7369537910798907	-0.4725876735897478	
0.7649002724607972	2.859498826028466	0.9053292646826568	0.4832804574819956	0.7369537910798907	0.4725876735897478	
-0.8391226278513642	1.78721708602918	0.8797480349807496	-0.7700660142968651	-0.304119715929871	-0.5608114941829161	
-0.8237213075654268	1.793299480347778	0.8909642648644079	0.7700660142968651	0.304119715929871	0.5608114941829161	
2.68527254467461	1.272682335473659	2.962859407931149	-0.282245262195725	-0.05662309104389938	-0.9576697956648214	
2.690917449918524	1.273814797294537	2.982012803844445	0.282245262195725	0.05662309104389938	0.9576697956648214	
4.623954118251455	-0.1686066585945201	5.082969164903393	-0.1986982514771145	-0.5644771926760012	-0.8011769491245726	
4.627928083280998	-0.157317114741	5.098992703885885	0.1986982514771145	0.5644771926760012	0.8011769491245726	
4.137355478978159	-0.1589553227717089	3.354131018405194	-0.7263410422697362	-0.513450257099043	-0.4569436768349465	
4.151882299823553	-0.148686317629728	3.363269891941894	0.7263410422697362	0.513450257099043	0.4569436768349465	
2.31154754021176	-0.7006952329023752	9.880769579676199	-0.5035294251186447	-0.8618495665097359	-0.06060893289497547	
2.321618128714133	-0.6834582415721805	9.881981758334099	0.5035294251186447	0.8618495665097359	0.06060893289497547	
2.024610129175035	-1.829205690622528	4.420642574744777	-0.9542604771186777	-0.1561149716062561	-0.2549805040578818	
2.043695338717409	-1.826083391190403	4.425742184825935	0.9542604771186777	0.1561149716062561	0.2549805040578818	
4.399456503741392	-3.302778961119789	8.157092832318501	-0.6828033962042078	-0.7305836427005433	-0.005202225524180735	
4.413112571665477	-3.288167288265778	8.157196876828984	0.6828033962042078	0.7305836427005433	0.005202225524180735	
4.046824319200058	1.09348295108319	8.044463431979139	-0.5812085692358483	-0.4406542371715531	-0.6841201958059525	
4.058448490584776	1.102296035826621	8.058145835895258	0.5812085692358483	0.4406542371715531	0.6841201958059525	
-4.173149916646583	-4.237605905566854	4.964878206436014	-0.2806957194601625	-0.8039391863707409	-0.5243011517194035	
-4.16753600225738	-4.221527121839439	4.975364229470402	0.2806957194601625	0.8039391863707409	0.5243011517194035	
1.008213319535445	0.6193337887757244	9.13563327529635	-0.6899334133436636	-0.4705416649254766	-0.5500749282789772	
1.022011987802318	0.628744622074234	9.14663477386193	0.6899334133436636	0.4705416649254766	0.5500749282789772	
-1.554112791537628	3.119936978495981	3.755473548004394	-0.5003998561180376	-0.8434539775166827	-0.1954107771038604	
-1.544104794415268	3.136806058046314	3.759381763546471	0.5003998561180376	0.8434539775166827	0.1954107771038604	
0.07471127051085436	-2.699913095949658	8.251519360436411	-0.7951593293748711	-0.1128618770332987	-0.5958052010687939	
0.09061445709835178	-2.697655858408992	8.263435464457787	0.7951593293748711	0.1128618770332987	0.5958052010687939	
2.048435661656149	3.026845604288657	7.828158548467059	-0.8438382186016247	-0.5095401156232719	-0.1682436667392251	
2.065312426028182	3.037036406601123	7.831523421801843	0.8438382186016247	0.5095401156232719	0.1682436667392251	
-1.027638319340005	-2.721358092028182	8.930018188260613	-0.503695862329345	-0.4650069770059576	-0.7280515020299584	
-1.017564402093418	-2.712057952488063	8.944579218301213	0.503695862329345	0.4650069770059576	0.7280515020299584	
-2.212184756110375	3.264833432790147	2.652030299666347	-0.4226033001984911	-0.6142930088511365	-0.6663711803026608	
-2.203732690106405	3.27711929296717	2.6653577232724	0.4226033001984911	0.6142930088511365	0.6663711803026608	
-4.143898412718736	0.5728864514107734	8.011372190403689	-0.996909364804045	-0.03270065182350387	-0.07143098582767417	
-4.123960225422655	0.5735404644472435	8.012800810120243	0.996909364804045	0.03270065182350387	0.07143098582767417	
2.115220066691015	-2.914599871613366	8.586499614852444	-0.8414544685321494	-0.5133579266759203	-0.1685764411365907	
2.132049156061658	-2.904332713079847	8.589871143675175	0.8414544685321494	0.5133579266759203	0.1685764411365907	
-1.412152164273078	-3.51943142075346	9.20064956297152	-0.5338896422566488	-0.2807444310808277	-0.7975866186867543	
-1.401474371427945	-3.513816532131843	9.216601295345255	0.5338896422566488	0.2807444310808277	0.7975866186867543	
-0.3466829979227737	0.07620815400126379	4.985433245037411	-0.6475638321208577	-0.7100210533883047	-0.2766427065265086	
-0.3337317212803566	0.09040857506902988	4.990966099167942	0.6475638321208577	0.7100210533883047	0.2766427065265086	
-1.183204698791642	4.902575872375281	7.399364657773878	-0.9151109107304537	-0.3213972612962619	-0.2434662635630287	
-1.164902480577033	4.909003817601207	7.404233983045139	0.9151109107304537	0.3213972612962619	0.2434662635630287	
-3.137952290520106	4.232000378404075	4.079737561800636	-0.5547749833939967	-0.7609053308338561	-0.3365230977344804	
-3.126856790852226	4.247218485020753	4.086468023755326	0.5547749833939967	0.7609053308338561	0.3365230977344804	
0.7044897368930902	-4.733642855407211	8.778152139545721	-0.872230508774668	-0.3785951240600161	-0.309644427691933	
0.7219343470685836	-4.726070952926011	8.78434502809956	0.872230508774668	0.3785951240600161	0.309644427691933	
3.639219833705484	1.215203921190239	4.58337032448164	-0.3921825185664387	-0.7943631669779777	-0.4638750166581539	
3.647063484076813	1.231091184529798	4.592647824814803	0.3921825185664387	0.7943631669779777	0.4638750166581539	
1.224203476036766	4.877034762807337	1.402800936234473	-0.02055137646846442	-0.9638903958618027	-0.2655050765816514	
1.224614503566135	4.896312570724573	1.408111037766106	0.02055137646846442	0.9638903958618027	0.2655050765816514	
-0.4654080084631762	2.700197108621343	2.709473342338193	-0.05046168707700476	-0.05643982253798804	-0.9971299637305174	
-0.4643987747216361	2.701325905072102	2.729415941612804	0.05046168707700476	0.05643982253798804	0.9971299637305174	
2.639978480359445	-0.8516653796395235	5.897895446849883	-0.6205194179583813	-0.5808593103379128	-0.5268378436771185	
2.652388868718612	-0.8400481934327653	5.908432203723426	0.6205194179583813	0.5808593103379128	0.5268378436771185	
-0.7497603556685117	3.397746923544157	7.745862719425065	-0.2863122853391937	-0.7805878538135427	-0.5556148645803272	
-0.7440341099617278	3.413358680620428	7.756975016716671	0.2863122853391937	0.7805878538135427	0.5556148645803272	
2.531233255257601	-0.8911796888972712	5.297768267422398	-0.9438331740408982	-0.1678975888801203	-0.2845862597317826	
2.550109918738419	-0.8878217371196687	5.303459992617034	0.9438331740408982	0.1678975888801203	0.2845862597317826	
-1.881124462917032	2.790606938045185	8.063984190174629	-0.8959721414301611	-0.4247946976466432	-0.1295507106593713	
-1.863205020088429	2.799102831998118	8.066575204387817	0.8959721414301611	0.4247946976466432	0.1295507106593713	
4.655049156455236	-4.976099214230853	8.88899988651856	-0.4886221266262389	-0.8611204267975703	-0.1404280168742059	
4.664821598987761	-4.958876805694902	8.891808446856045	0.4886221266262389	0.8611204267975703	0.1404280168742059	
4.318760404036071	1.925474301280292	8.149971298130298	-0.8422183093329304	-0.2196822817579309	-0.4923494841126669	
4.33560477022273	1.929867946915451	8.159818287812552	0.8422183093329304	0.2196822817579309	0.4923494841126669	
2.946679120935445	-2.403451511178903	8.05913797944479	-0.5020667861771886	-0.5681601249893113	-0.6520145815776204	
2.956720456658989	-2.392088308679117	8.072178271076343	0.5020667861771886	0.5681601249893113	0.6520145815776204	
-1.141857066756007	2.251860543640856	2.3591849317313	-0.5089053756416305	-0.03384470753582242	-0.8601568777931532	
-1.131678959243174	2.252537437791572	2.376388069287163	0.5089053756416305	0.03384470753582242	0.8601568777931532	
0.2483680605227467	4.926449690940288	3.416221714383227	-0.580170109029243	-0.6340461532487554	-0.5112613031899169	
0.2599714627033316	4.939130614005263	3.426446940447025	0.580170109029243	0.6340461532487554	0.5112613031899169	
2.716475503984648	4.752230178853688	5.635612808109871	-0.4571230622064305	-0.5741302632750362	-0.6792738378524183	
2.725617965228776	4.763712784119189	5.649198284866919	0.4571230622064305	0.5741302632750362	0.6792738378524183	
-1.175456698755126	3.098208585019628	5.669046867067232	-0.8308688639654342	-0.1999734854729416	-0.5192952300961295	
-1.158839321475817	3.102208054729087	5.679432771669155	0.8308688639654342	0.1999734854729416	0.5192952300961295	
0.2545853425299605	4.691251869917382	4.726437904491435	-0.6293472219152371	-0.558862449612158	-0.5399952191279769	
0.2671722869682652	4.702429118909625	4.737237808873995	0.6293472219152371	0.558862449612158	0.5399952191279769	
1.758323937277064	-3.571912589771125	4.714545347126736	-0.0366714197087951	-0.9915371440193829	-0.1245363360888174	
1.75905736567124	-3.552081846890737	4.717036073848512	0.0366714197087951	0.9915371440193829	0.1245363360888174	
0.8348257559541139	4.511408893427808	4.10502028642676	-0.4871729862645207	-0.8480672739696742	-0.2084331554138036	
0.8445692156794044	4.528370238907201	4.109188949535036	0.4871729862645207	0.8480672739696742	0.2084331554138036	
-0.6724293238935308	-0.7986968872821032	0.5548683763851969	-0.4000325313618103	-0.8792515370612535	-0.2586323808568551	
-0.6644286732662946	-0.7811118565408781	0.560041024002334	0.4000325313618103	0.8792515370612535	0.2586323808568551	
0.2555719058873673	-1.919465697502646	2.769376988182297	-0.4870999950419668	-0.4697031169356192	-0.7362829461362527	
0.2653139057882067	-1.910071635163934	2.784102647105022	0.4870999950419668	0.4697031169356192	0.7362829461362527	
2.248004117228306	-4.102840292807582	2.153842243699839	-0.06439490130614936	-0.9802030075537734	-0.1872307684872028	
2.249292015254429	-4.083236232656507	2.157586859069584	0.06439490130614936	0.9802030075537734	0.1872307684872028	
-4.737527935003532	2.931147560472398	5.847417238871774	-0.2213255743045627	-0.539752886991394	-0.8122079851511009	
-4.733101423517441	2.941942618212226	5.863661398574796	0.2213255743045627	0.539752886991394	0.8122079851511009	
-4.627993074771922	-2.350292984332581	5.130752036928894	-0.6415546789043215	-0.4576616958414859	-0.6155918827725623	
-4.615161981193835	-2.341139750415751	5.143063874584345	0.6415546789043215	0.4576616958414859	0.6155918827725623	
4.983450029077094	-2.165230846690107	6.339432758579168	-0.8778781240097965	-0.4416812619662605	-0.1850612390883947	
5.00100759155729	-2.156397221450782	6.343133983360936	0.8778781240097965	0.4416812619662605	0.1850612390883947	
-3.456392116756986	-4.149342536655544	2.428648063642686	-0.6268917621295269	-0.6008436836901924	-0.4959774050737964	
-3.443854281514396	-4.13732566298174	2.438567611744161	0.6268917621295269	0.6008436836901924	0.4959774050737964	
1.557334828399439	0.5204853860692971	5.954082062594253	-0.1692189553919849	-0.5575891303807349	-0.8126864751042072	
1.560719207507279	0.5316371686769118	5.970335792096337	0.1692189553919849	0.5575891303807349	0.8126864751042072	
0.6775901089915193	1.438788987371049	3.663466111651391	-0.6021608708554615	-0.09460466346367166	-0.7927497986511995	
0.6896333264086285	1.440681080640323	3.679321107624415	0.6021608708554615	0.09460466346367166	0.7927497986511995	
1.277817478641221	-3.692720716180526	6.074358836866728	-0.7424509658906863	-0.6520795364395965	-0.1534888966821642	
1.292666497959035	-3.679679125451734	6.077428614800372	0.7424509658906863	0.6520795364395965	0.1534888966821642	
-3.793038362495968	-0.6018618904549322	4.233091340107951	-0.4131171944788027	-0.4838680390969808	-0.7714958874591658	
-3.784776018606391	-0.5921845296729926	4.248521257857134	0.4131171944788027	0.4838680390969808	0.7714958874591658	
2.805518957851278	-0.7822725978875145	9.013485002851722	-0.8271109287713293	-0.4509868607824646	-0.3354077561843301	
2.822061176426705	-0.7732528606718652	9.020193157975408	0.8271109287713293	0.4509868607824646	0.3354077561843301	
-0.2890369152126715	-3.625438483971494	6.778905322891712	-0.5292506265092111	-0.4805722745629838	-0.6992453526917198	
-0.2784519026824873	-3.615827038480234	6.792890229945546	0.5292506265092111	0.4805722745629838	0.6992453526917198	
-0.02581474475585543	0.2624328554229727	4.784051255895086	-0.3203558075840238	-0.5189974235675656	-0.792473236694727	
-0.01940762860417496	0.272812803894324	4.799900720628981	0.3203558075840238	0.5189974235675656	0.792473236694727	
-4.960098066886927	1.508270325218497	2.296636351892479	-0.6377019514082336	-0.6418403785297995	-0.4258839626692396	
-4.947344027858763	1.521107132789093	2.305154031145864	0.6377019514082336	0.6418403785297995	0.4258839626692396	
4.373298347272558	-1.879283446817542	4.36627282293398	-0.6817855453025483	-0.7238284340456623	-0.1060229611146146	
4.386934058178609	-1.864806878136629	4.368393282156272	0.6817855453025483	0.7238284340456623	0.1060229611146146	
-0.9242671002951519	2.49455339682948	8.865464400326896	-0.2580051733340937	-0.9430605863013736	-0.2099287047970186	
-0.9191069968284701	2.513414608555507	8.869662974422837	0.2580051733340937	0.9430605863013736	0.2099287047970186	
2.860229018172145	2.225368725466323	1.65567820535427	-0.7538552142924904	-0.5064167948404905	-0.4186219604697154	
2.875306122457995	2.235497061363133	1.664050644563664	0.7538552142924904	0.5064167948404905	0.4186219604697154	
1.309536814006087	3.959455105112756	7.414748976341953	-0.3336338100679985	-0.8896286554643804	-0.3118482582220871	
1.316209490207447	3.977247678222044	7.420985941506395	0.3336338100679985	0.8896286554643804	0.3118482582220871	
-2.282666847209977	3.48926346488067	6.453982144583017	-0.815056189496459	-0.3524533230522532	-0.459847869444816	
-2.266365723420047	3.496312531341715	6.463179101971914	0.815056189496459	0.3524533230522532	0.459847869444816	
4.789088093875402	4.456650015995429	1.106468540240167	-0.2951497461917242	-0.6900894328355123	-0.66080496518392	
4.794991088799237	4.470451804652139	1.119684639543846	0.2951497461917242	0.6900894328355123	0.66080496518392	
-4.493849078782314	2.747648223262857	6.29725633807229	-0.5452297008674457	-0.007119551299591876	-0.8382564555559882	
-4.482944484764965	2.747790614288849	6.31402146718341	0.5452297008674457	0.007119551299591876	0.8382564555559882	
1.275701050219293	-4.404684588752067	4.636568909219433	-0.6450583625378606	-0.4106287092360904	-0.6444251485402135	
1.288602217470051	-4.396472014567346	4.649457412190237	0.6450583625378606	0.4106287092360904	0.6444251485402135	
-0.8506760378353784	2.662915564038202	2.465681118966575	-0.4179738167129717	-0.4116358299615562	-0.8098480302095276	
-0.8423165615011189	2.671148280637433	2.481878079570766	0.4179738167129717	0.4116358299615562	0.8098480302095276	
-1.893083120515187	4.001351951670355	8.258527775350577	-0.5699236510406878	-0.5606523743920689	-0.6007128657461797	
-1.881684647494373	4.012564999158196	8.270542032665501	0.5699236510406878	0.5606523743920689	0.6007128657461797	
2.676963086658072	-1.691109938441485	1.169928392001052	-0.0539144353130719	-0.1626211642211384	-0.9852144896479316	
2.678041375364333	-1.687857515157062	1.18963268179401	0.0539144353130719	0.1626211642211384	0.9852144896479316	
3.97931008270751	-1.241594616742143	2.462476298981012	-0.1707779829261586	-0.7384806869230232	-0.6522891656231709	
3.982725642366033	-1.226825003003683	2.475522082293475	0.1707779829261586	0.7384806869230232	0.6522891656231709	
2.16574352079344	4.007934245524748	3.929951581257054	-0.827478923604367	-0.09557125095030189	-0.5533035034972692	
2.182293099265528	4.009845670543754	3.941017651326999	0.827478923604367	0.09557125095030189	0.5533035034972692	
0.03137319824750406	-4.578201532043097	6.780469468273461	-0.9877773622901913	-0.03735546710089528	-0.1513289517068891	
0.05112874549330789	-4.577454422701079	6.783496047307599	0.9877773622901913	0.03735546710089528	0.1513289517068891	
0.2228812763001919	1.198150502052281	6.075818619966019	-0.03393249037810831	-0.7421708396463614	-0.6693512014446186	
0.2235599261077541	1.212993918845208	6.089205643994911	0.03393249037810831	0.7421708396463614	0.6693512014446186	
-2.406185828163366	-3.111245000357591	3.889701919143855	-0.006148911987111179	-0.416244258282608	-0.9092320431705739	
-2.406062849923624	-3.102920115191938	3.907886560007267	0.006148911987111179	0.416244258282608	0.9092320431705739	
-3.156577054561462	-4.17118827625318	8.500384345464997	-0.6926091530294312	-0.6331858646579266	-0.34549706501973	
-3.142724871500873	-4.158524558960021	8.507294286765392	0.6926091530294312	0.6331858646579266	0.34549706501973	
4.022353214777309	3.855389627058928	3.562244105082484	-0.8018105409331573	-0.4664090785946554	-0.3735805506888205	
4.038389425595972	3.864717808630821	3.56971571609626	0.8018105409331573	0.4664090785946554	0.3735805506888205	
-2.949280731316319	2.589179220722499	2.038058653546985	-0.9004866622301275	-0.3727412228413301	-0.2240262304740099	
-2.931270998071716	2.596634045179325	2.042539178156465	0.9004866622301275	0.3727412228413301	0.2240262304740099	
-0.5751380088519897	1.118693550072702	7.078507260413692	-0.05859339967119329	-0.5969123442210806	-0.8001640249545502	
-0.5739661408585659	1.130631796957124	7.094510540912784	0.05859339967119329	0.5969123442210806	0.8001640249545502	
1.074065446989507	2.033540440299354	6.372231017532997	-0.04479593639051664	-0.968260024923175	-0.2458980443571467	
1.074961365717318	2.052905640797817	6.377148978420141	0.04479593639051664	0.968260024923175	0.2458980443571467	
-0.8503522255537099	1.94411539015202	5.373603861486763	-0.564443231307154	-0.8197758465636715	-0.09680599166556962	
-0.8390633609275668	1.960510907083294	5.375539981320074	0.564443231307154	0.8197758465636715	0.09680599166556962	
4.547472782651329	3.809938774864554	4.363131675284208	-0.9359236007317387	-0.2921657841677964	-0.1966879969773286	
4.566191254665965	3.81578209054791	4.367065435223755	0.9359236007317387	0.2921657841677964	0.1966879969773286	
-2.084360281730675	3.24670916865966	5.698357675949845	-0.4784209364404163	-0.5843847039720556	-0.6554448301260511	
-2.074791863001867	3.258396862739101	5.711466572552366	0.4784209364404163	0.5843847039720556	0.6554448301260511	
3.777440888700884	-2.466739791371634	6.594413331449413	-0.05538810555079323	-0.9956495324999549	-0.07492773983055587	
3.7785486508119	-2.446826800721634	6.595911886246024	0.05538810555079323	0.9956495324999549	0.07492773983055587	
2.292801578614185	4.309534390141687	2.461265912952485	-0.4874003803098858	-0.5593444083657292	-0.6705033199796784	
2.302549586220383	4.320721278309001	2.474675979352079	0.4874003803098858	0.5593444083657292	0.6705033199796784	
0.09770091110892443	2.873961407048133	8.998097067765105	-0.2425288703252358	-0.9694512985492361	-0.03665960719872415	
0.1025514885154291	2.893350433019117	8.998830259909079	0.2425288703252358	0.9694512985492361	0.03665960719872415	
-2.895715472616996	-2.458278529046107	1.255564211899349	-0.4579338754715505	-0.6629084204966911	-0.5923250726840701	
-2.886556795107565	-2.445020360636173	1.267410713353031	0.4579338754715505	0.6629084204966911	0.5923250726840701	
0.1285713194487959	-0.4976750852635947	3.63681865277408	-0.147101032837468	-0.4571568787896113	-0.8771367477842271	
0.1315133401055452	-0.4885319476878025	3.654361387729764	0.147101032837468	0.4571568787896113	0.8771367477842271	
1.182214205392937	-0.1929672936311022	3.47676357326122	-0.8958873590381058	-0.3719257893547311	-0.2430165573136699	
1.2001319525737	-0.1855287778440076	3.481623904407493	0.8958873590381058	0.3719257893547311	0.2430165573136699	
1.587450850536296	3.417761695055445	1.793586670612343	-0.04526926634931867	-0.9065575036631304	-0.4196476928046525	
1.588356235863283	3.435892845128707	1.801979624468436	0.04526926634931867	0.9065575036631304	0.4196476928046525	
-3.387695334238785	3.920604189129381	3.553015629255155	-0.5825582089751913	-0.7670999456521088	-0.2686700700415831	
-3.376044170059281	3.935946188042423	3.558389030655987	0.5825582089751913	0.7670999456521088	0.2686700700415831	
3.545355831356445	-1.632862770758029	3.347429985502649	-0.1944618491813407	-0.9772181938310545	-0.08502464853526411	
3.549245068340072	-1.613318406881408	3.349130478473354	0.1944618491813407	0.9772181938310545	0.08502464853526411	
3.612366464962227	2.427374212620379	6.390198118079756	-0.5042599794479213	-0.7600045993304411	-0.4100181485297422	
3.622451664551185	2.442574304606988	6.398398481050351	0.5042599794479213	0.7600045993304411	0.4100181485297422	
4.490304168182766	-2.085552556416682	0.09290925265562966	-0.6918654655861255	-0.08621577981794425	-0.7168605281640756	
4.504141477494488	-2.083828240820323	0.1072464632189112	0.6918654655861255	0.08621577981794425	0.7168605281640756	
-2.423610370196579	-4.914638700474453	3.411495736858159	-0.3197917800495383	-0.7180364449779866	-0.6181883864131732	
-2.417214534595589	-4.900277971574893	3.423859504586422	0.3197917800495383	0.7180364449779866	0.6181883864131732	
3.724745994306856	1.034774301464053	1.444935451311352	-0.8522202480223162	-0.2069673730466728	-0.4805051044005061	
3.741790399267302	1.038913648924987	1.454545553399362	0.8522202480223162	0.2069673730466728	0.4805051044005061	
3.371378273729238	4.558981568571121	5.740698668976467	-0.3628515040077065	-0.9237242688100895	-0.1227691380217794	
3.378635303809392	4.577456053947323	5.743154051736902	0.3628515040077065	0.9237242688100895	0.1227691380217794	
-1.20451645947404	-2.670679507974545	3.532792117329639	-0.5056654251634691	-0.4185493626884116	-0.7543997009459724	
-1.19440315097077	-2.662308520720777	3.547880111348559	0.5056654251634691	0.4185493626884116	0.7543997009459724	
3.421700323984913	-4.347402668093212	4.101905051582882	-0.5901619992338095	-0.2570313377419431	-0.7652736151723383	
3.433503563969589	-4.342262041338373	4.117210523886329	0.5901619992338095	0.2570313377419431	0.7652736151723383	
2.141269803139996	2.951046604133745	6.128498839258083	-0.9011544766998	-0.4241745484601809	-0.08942349558427633	
2.159292892673992	2.959530095102948	6.130287309169769	0.9011544766998	0.4241745484601809	0.08942349558427633	
3.316384072041449	4.432553782818908	9.760322844310833	-0.2740943790500346	-0.8328801521444801	-0.4808148536983479	
3.32186595962245	4.449211385861798	9.7699391413848	0.2740943790500346	0.8328801521444801	0.4808148536983479	
-4.746632785471812	2.532738313614437	8.984099272079344	-0.7120057609862005	-0.6701534498159301	-0.209623829805367	
-4.732392670252088	2.546141382610756	8.988291748675453	0.7120057609862005	0.6701534498159301	0.209623829805367	
1.970747713958235	1.583423229107168	7.426130482761527	-0.09265308020892889	-0.9063883153629499	-0.4121597123704735	
1.972600775562414	1.601550995414427	7.434373677008937	0.09265308020892889	0.9063883153629499	0.4121597123704735	
3.751398688478289	4.136485053825573	2.681286702801895	-0.9752776294096377	-0.2178013980145444	-0.03736437602887777	
3.770904241066482	4.140841081785863	2.682033990322473	0.9752776294096377	0.2178013980145444	0.03736437602887777	
-0.3173020690983708	3.325974188297485	1.843549934203773	-0.4081083732494636	-0.9051494528600258	-0.1189622783527314	
-0.3091399016333815	3.344077177354685	1.845929179770828	0.4081083732494636	0.9051494528600258	0.1189622783527314	
3.000947022452737	1.623373919353948	5.493072287816263	-0.06887897522332989	-0.3151506396304118	-0.9465388323321586	
3.002324601957203	1.629676932146556	5.512003064462906	0.06887897522332989	0.3151506396304118	0.9465388323321586	
-1.076913611915806	-1.088747102854806	6.694689940094247	-0.6925655055349388	-0.04244019481667494	-0.720105443950438	
-1.063062301805108	-1.087898298958472	6.709092048973256	0.6925655055349388	0.04244019481667494	0.720105443950438	
-1.579667077435409	2.685348913521949	7.967213100123949	-0.7858458144410154	-0.2553356905736531	-0.5632495371012858	
-1.563950161146589	2.690455627333422	7.978478090865975	0.7858458144410154	0.2553356905736531	0.5632495371012858	
-1.222694631746186	2.176761224755853	0.08494689667960298	-0.40361805220204	-0.5395812136360794	-0.7388806275899016	
-1.214622270702145	2.187552849028575	0.09972450923140101	0.40361805220204	0.5395812136360794	0.7388806275899016	
-4.245320860418744	-0.5652531044567899	6.788031222860048	-0.5730171664238347	-0.6580845148716786	-0.4884425229949851	
-4.233860517090267	-0.5520914141593564	6.797800073319948	0.5730171664238347	0.6580845148716786	0.4884425229949851	
-0.8226854819454066	-3.523182402275142	0.2715439025007182	-0.313556946858196	-0.4080699592724655	-0.857415272441735	
-0.8164143430082427	-3.515021003089693	0.288692207949553	0.313556946858196	0.4080699592724655	0.857415272441735	
3.574248402559961	-1.149519618300778	8.280158899323794	-0.2484196266091443	-0.4897603811521054	-0.8357167332111509	
3.579216795092144	-1.139724410677736	8.296873233988018	0.2484196266091443	0.4897603811521054	0.8357167332111509	
-4.746007762659563	-0.9502149322090092	8.553335337347043	-0.1708067923787065	-0.493331641990701	-0.8529061675753413	
-4.742591626811989	-0.9403482993691952	8.570393460698551	0.1708067923787065	0.493331641990701	0.8529061675753413	
1.544522914707798	-0.1127660647032502	3.889200138762105	-0.6560438351486325	-0.5101553492461275	-0.556190620200517	
1.55764379141077	-0.1025629577183277	3.900323951166115	0.6560438351486325	0.5101553492461275	0.556190620200517	
-1.303455588848748	4.467560802258152	0.6336528679983489	-0.9368215714233358	-0.1242875611180096	-0.326983096607835	
-1.284719157420281	4.470046553480512	0.6401925299305056	0.9368215714233358	0.1242875611180096	0.326983096607835	
-3.35075236519115	2.216504705916899	9.980908385621055	-0.9054348780542343	-0.2354145512115772	-0.3532246745072683	
-3.332643667630065	2.221212996941131	9.987972879111199	0.9054348780542343	0.2354145512115772	0.3532246745072683	
0.5757247883821026	4.609079389548276	2.41073918257552	-0.9048380572740878	-0.3456670577258069	-0.2485606069183898	
0.5938215495275844	4.615992730702792	2.415710394713887	0.9048380572740878	0.3456670577258069	0.2485606069183898	
2.425185839972656	3.766752030000374	3.53093853761828	-0.2523047907951618	-0.7449657333559477	-0.6175502802746062	
2.430231935788559	3.781651344667493	3.543289543223772	0.2523047907951618	0.7449657333559477	0.6175502802746062	
-1.819110165006171	-2.434104696375013	4.064641917510945	-0.8316267010096495	-0.1839014632764761	-0.5240012232548487	
-1.802477630985978	-2.430426667109484	4.075121941976042	0.8316267010096495	0.1839014632764761	0.5240012232548487	
2.039244553110916	-1.05054871169072	0.08638234291105551	-0.4962237236231716	-0.4729178044725665	-0.728087059579005	
2.04916902758338	-1.041090355601269	0.1009440841026356	0.4962237236231716	0.4729178044725665	0.728087059579005	
-1.031083820802832	-2.489072182616474	9.439705043298893	-0.2997514995448872	-0.3784477030257736	-0.8757433268915654	
-1.025088790811934	-2.481503228555959	9.457219909836725	0.2997514995448872	0.3784477030257736	0.8757433268915654	
0.1361741489879698	-3.691568650013864	2.834430711053616	-0.3721094874528158	-0.6198959202438439	-0.6908426574934706	
0.1436163387370261	-3.679170731608987	2.848247564203485	0.3721094874528158	0.6198959202438439	0.6908426574934706	
-4.841607205481109	4.614247090702466	8.541504321515632	-0.7422933280769644	-0.5424835977898982	-0.3933346682169679	
-4.82676133891957	4.625096762658264	8.549371014879972	0.7422933280769644	0.5424835977898982	0.3933346682169679	
-0.5559002736579155	2.027388802236897	2.320152324489286	-0.1520359054772831	-0.444719417960601	-0.8826719224799704	
-0.5528595555483699	2.036283190596109	2.337805762938886	0.1520359054772831	0.444719417960601	0.8826719224799704	
-4.452190360674672	2.159355712930387	7.716763903729613	-0.7896240624556895	-0.4413090568173083	-0.4263099299359459	
-4.436397879425559	2.168181894066734	7.725290102328332	0.7896240624556895	0.4413090568173083	0.4263099299359459	
-1.708220034869382	2.146577640937974	1.522988300406465	-0.7319886337997348	-0.6778448972382569	-0.06869450688413697	
-1.693580262193388	2.16013453888274	1.524362190544148	0.7319886337997348	0.6778448972382569	0.06869450688413697	
1.953647473084295	1.411428788862075	9.158056708509434	-0.451482297083001	-0.4388773104538393	-0.7768850891795138	
1.962677119025955	1.420206335071152	9.173594410293024	0.451482297083001	0.4388773104538393	0.7768850891795138	
-3.498718514925996	-2.366992521938976	9.476850050685266	-0.456452699675337	-0.6980922387339004	-0.5516503957930129	
-3.489589460932489	-2.353030677164298	9.487883058601126	0.456452699675337	0.6980922387339004	0.5516503957930129	
-0.1845088969772024	-0.4690629363063414	4.391420341745723	-0.6147211642803838	-0.4170718419431846	-0.6694542320755683	
-0.1722144736915947	-0.4607214994674778	4.404809426387235	0.6147211642803838	0.4170718419431846	0.6694542320755683	
